ply
format ascii 1.0
element vertex 705
property float x
property float y
property float z
property float nx
property float ny
property float nz
property uchar red
property uchar green
property uchar blue
end_header
-6.261446 8.636223 -4.164633 0.575008 -0.538740 -0.615731 82 200 95
8.474945 0.931501 -7.478065 0.355987 -0.813459 0.459954 253 47 124
-7.065935 -7.405746 -5.984748 0.192513 -0.801805 0.565727 32 236 62
-3.702180 7.747999 3.551301 0.160775 -0.842681 0.513848 29 55 130
6.396948 -4.028693 -8.865548 -0.629053 0.710703 0.314950 6 165 46
6.960005 8.576426 -4.630934 0.155737 0.972911 0.170854 251 181 30
-8.115255 3.190891 -5.387727 0.608284 0.793617 -0.012771 236 39 223
0.800405 0.770209 9.865113 -0.607162 0.322951 -0.725987 186 151 91
4.722650 -4.868642 2.657812 -0.673417 -0.581971 0.455873 70 138 106
-0.554109 5.320225 -5.475184 -0.556990 0.669453 -0.491523 237 76 100
-8.859606 -5.096377 1.455121 -0.815434 -0.091489 -0.571575 38 66 59
-6.852185 -1.530698 -6.447568 -0.212985 -0.698610 -0.683068 22 219 17
-3.253171 -3.327997 -6.960086 0.528785 -0.235854 -0.815328 71 213 163
-7.001293 3.045432 -5.835480 -0.798737 0.433712 0.417028 87 56 212
-8.369565 -8.768022 9.745316 0.290047 -0.929733 0.226868 182 111 64
-9.794186 7.560462 -4.550816 -0.490398 -0.814715 0.309433 247 102 29
-8.218596 -9.138862 8.424858 0.988602 0.106460 0.106452 178 230 225
-1.050256 0.943683 5.871775 -0.622915 0.138018 0.770018 90 7 123
-4.449454 -1.604563 -4.148776 -0.563881 -0.090911 0.820837 112 84 199
-8.583077 2.454064 -3.378263 -0.448392 -0.014295 0.893723 226 244 44
6.199962 3.701015 -2.809113 0.069009 0.588951 0.805218 88 205 105
-9.853061 -8.238726 -7.433259 0.703039 -0.082094 0.706397 93 2 229
-6.305407 -1.572053 3.394278 -0.265096 -0.954816 0.134351 55 65 223
2.195590 -1.893724 3.458652 0.540452 0.338219 -0.770402 221 251 240
6.532105 -6.053893 -8.457628 -0.621373 -0.559261 0.548747 15 23 211
-0.463798 -1.126402 -4.881641 0.461717 0.671116 0.580018 191 136 128
-5.672264 5.034985 8.732604 -0.817685 -0.095330 0.567718 211 155 233
-1.724724 -1.359095 3.378721 -0.845947 0.023840 0.532735 10 72 183
-0.437501 -7.597791 2.725734 -0.521358 0.301560 -0.798278 151 13 19
-4.621709 8.445032 -3.837436 -0.306592 0.756841 -0.577228 152 30 216
3.834369 8.635415 -8.593627 0.682984 0.390238 -0.617452 64 194 247
-5.569902 9.492858 -1.759780 -0.782927 -0.207890 0.586350 140 128 159
4.632173 4.268950 -1.371036 0.827587 -0.464688 0.314905 244 119 121
7.961917 5.693151 -1.072476 0.651285 -0.680185 0.336417 220 99 161
-7.634716 -1.860254 -5.752521 -0.132702 0.697795 0.703898 95 126 247
9.844652 -5.331716 -1.826459 -0.594562 -0.599796 0.535481 4 168 101
-0.000865 -6.858359 7.319909 -0.549657 -0.674679 0.492631 159 149 223
8.522580 2.031614 -6.681090 0.923775 0.360172 0.130057 253 167 252
0.911409 1.470529 8.852905 -0.650352 -0.218856 0.727423 136 255 195
7.793631 -5.542124 0.940029 0.152141 0.708214 -0.689409 200 89 15
-8.159149 -8.697071 3.284858 -0.695391 -0.580342 -0.423833 230 246 167
2.017992 -4.997898 0.473050 0.538175 0.834332 0.119402 133 152 122
2.031219 -7.700075 1.450604 -0.279339 -0.011322 -0.960126 212 27 118
-4.253999 -9.412359 7.592142 0.171201 -0.677291 -0.715518 7 173 253
0.515988 -1.613691 8.303616 -0.441539 -0.728355 -0.523968 147 18 228
9.371568 -0.279802 5.811097 0.498382 0.570985 -0.652374 161 5 129
9.106714 0.060388 -9.548089 0.615633 -0.715243 0.330792 201 168 168
1.016717 5.931997 9.524382 -0.377178 0.479179 0.792543 115 126 5
-1.429075 5.329289 -1.609888 0.835429 -0.068147 0.545357 127 224 21
2.378910 -6.739754 -1.461354 0.582744 -0.738564 0.339018 103 53 143
5.311100 -7.043355 -2.412862 0.846631 0.183413 0.499576 54 142 247
-2.547771 3.644353 1.967344 0.409355 0.516966 0.751781 76 65 254
0.223662 4.301169 8.943655 0.512592 0.652320 0.558326 57 162 245
-6.602712 -8.997598 1.195631 -0.847096 -0.432850 -0.308333 240 13 238
8.622531 8.642287 6.922827 0.115860 0.897362 -0.425815 131 83 237
3.556097 5.728765 -5.556848 -0.822327 0.472562 0.316958 110 11 3
-1.414034 -7.671284 8.566185 0.062469 0.766864 0.638762 101 160 45
8.770393 -6.833166 -8.013919 -0.883331 -0.107935 -0.456154 24 147 111
2.261843 -3.155190 -3.752094 0.299820 -0.488804 -0.819255 225 249 38
7.081855 -0.636666 -3.213547 -0.206381 0.609000 -0.765850 93 17 44
-6.419827 4.182142 -3.852441 0.989930 -0.140832 -0.014290 104 27 115
-0.277433 2.955518 3.373504 0.140683 0.938089 -0.316541 42 45 36
-7.166589 -8.905810 5.657037 0.132361 0.836883 -0.531137 206 251 19
-7.706262 -2.415009 -7.783461 0.482220 -0.752402 0.448725 58 206 119
-1.441546 9.843197 -0.066837 0.285234 -0.841862 0.458159 206 143 201
7.353733 3.504310 -2.116054 0.447771 0.681704 -0.578602 202 131 156
7.546955 -3.181399 -6.302924 -0.045034 -0.480739 0.875707 2 6 167
8.710340 -5.690446 -2.079977 0.844293 -0.298664 -0.444938 26 239 121
-8.769339 -0.104220 1.215335 0.802987 0.577334 0.147976 168 39 61
-2.635424 -3.277881 0.398350 0.572107 0.757893 -0.313514 77 22 179
-8.777806 8.661970 9.318071 0.528813 -0.380348 -0.758744 81 100 56
-9.168186 -1.999378 -9.172638 0.482015 0.722646 -0.495424 63 42 195
5.729394 0.716461 -3.106744 0.581304 -0.436092 -0.686956 139 9 228
-7.524545 -5.482462 -7.979948 -0.457163 -0.860747 -0.223868 114 53 83
1.344988 -7.319728 5.696897 -0.002252 0.466999 0.884255 95 154 247
-3.164570 1.209706 -0.084473 -0.532775 0.651299 0.540334 224 249 104
-1.941815 -0.788278 1.830335 0.602481 -0.630014 0.489999 129 26 180
-9.704338 -3.835248 -3.383090 -0.740424 -0.281349 -0.610422 157 158 0
3.114604 -0.331953 -8.630196 -0.385417 -0.861698 -0.330047 35 198 91
3.544028 -5.078711 7.818799 -0.688953 0.667299 0.282941 222 43 144
1.542214 -1.278608 8.285875 -0.742191 -0.250405 0.621651 186 112 96
0.297704 -2.569257 -2.607104 0.339489 -0.741357 -0.578910 77 0 147
7.903506 -3.735914 8.957130 -0.097954 0.593949 0.798517 55 249 240
5.158068 -1.739742 -0.265408 0.150949 -0.135216 -0.979250 140 171 44
5.227000 7.025286 0.727485 0.766260 -0.233970 -0.598418 56 188 20
3.614736 -3.172665 -4.310207 -0.778643 0.621908 -0.083340 189 254 138
-6.969799 2.006271 -4.368347 0.773280 0.191406 -0.604485 109 84 164
3.296123 4.174957 5.815292 -0.982660 -0.177963 0.052047 128 87 104
0.790772 8.034272 0.009576 -0.458825 -0.725675 -0.512715 149 253 71
-1.562808 -7.571051 -7.960987 -0.639800 -0.426978 -0.639019 98 85 251
-3.125558 1.556072 -5.249506 -0.496250 0.204552 -0.843738 163 127 225
-5.555595 -4.132710 -4.581017 0.595797 0.591981 0.542756 96 157 80
1.667897 5.923586 5.123765 -0.605247 -0.353707 -0.713139 38 80 168
0.592648 7.628596 7.755972 -0.410456 0.487380 -0.770706 213 159 8
4.224322 0.638526 2.437616 -0.355643 0.800314 0.482717 82 63 248
1.833239 4.866210 -7.537300 0.100694 0.476394 -0.873447 66 120 156
2.473677 2.535981 2.171287 0.662164 -0.334200 0.670709 219 78 18
-3.210384 -4.426799 -4.832176 -0.759720 0.465684 -0.453832 75 37 32
5.953907 0.973157 -1.562181 0.612667 -0.280091 0.739046 173 227 87
2.613965 6.052492 -5.669796 -0.817421 0.448180 -0.361880 49 216 84
9.086003 4.990264 1.338201 0.654341 -0.425801 0.624926 15 242 201
-0.479699 1.004091 4.997576 -0.722288 0.617543 0.311354 186 221 80
6.535526 -4.795018 -8.299212 -0.891534 -0.413013 -0.185978 90 209 52
-8.476526 1.542982 6.129416 -0.785492 0.353242 -0.508156 10 34 91
-2.045711 -0.282489 -5.195686 0.683498 -0.542084 -0.488851 103 112 240
-7.315391 3.571698 -2.981300 -0.739826 -0.108884 -0.663929 122 26 204
7.008921 1.348266 8.945805 0.617299 -0.588819 -0.521760 77 17 31
-1.917473 -9.235152 -9.338510 -0.340384 0.879686 0.332102 221 168 121
2.949175 2.747050 8.525139 -0.660283 0.240244 0.711554 27 125 239
3.998400 -6.053926 7.754622 -0.306476 0.675271 -0.670881 225 149 199
8.672718 -4.088318 4.021244 0.456755 -0.710727 -0.535016 77 252 100
1.790208 4.849805 8.234578 0.032614 0.902396 0.429672 64 11 19
-7.276347 3.353304 0.632729 -0.240702 -0.962756 0.123141 138 220 125
-4.462793 -1.172670 8.148644 0.815798 0.540312 -0.206244 92 115 217
9.346769 5.735870 -9.669831 -0.674490 -0.196002 -0.711791 103 12 71
-5.250900 8.987188 -0.034051 -0.438546 0.315823 -0.841388 240 135 92
-0.942389 -3.234118 3.816523 0.193528 0.894667 0.402639 40 228 136
-0.001935 9.120659 -1.300606 -0.115640 0.887748 -0.445568 46 31 88
-9.215558 2.658057 3.096780 -0.264147 0.318166 -0.910493 224 34 22
9.248181 -3.680053 7.281707 -0.674705 -0.648236 0.352936 198 248 126
7.536155 0.407713 -3.658859 -0.544805 0.443780 0.711511 15 16 82
-5.408577 -2.823185 2.122660 -0.581796 0.588598 -0.561307 193 237 159
-2.361646 8.947203 -3.704126 0.441640 -0.849667 -0.288130 255 53 48
1.015809 -5.166289 -3.562059 0.581950 0.536600 0.611060 134 127 144
-6.163187 8.073706 9.827170 0.655545 0.704753 -0.271264 47 76 18
4.054882 -6.825261 -0.885054 0.101428 0.007350 -0.994816 177 218 194
-5.857574 6.525670 6.426187 0.560107 -0.504420 0.657146 73 177 134
0.654985 5.566061 -3.073705 -0.408881 -0.862364 0.298573 60 74 6
9.016424 -4.565814 0.134591 -0.688171 -0.388436 -0.612812 59 60 41
-5.350564 -2.023772 -5.491972 -0.624490 0.522379 0.580631 221 115 193
4.127485 8.887249 -8.339793 -0.606548 -0.640287 0.471309 148 121 91
-7.751328 1.744250 1.414436 -0.338949 0.774511 -0.534084 70 61 97
-1.870245 3.295620 -0.160400 0.546842 -0.454472 -0.703150 13 143 250
1.672791 -6.718462 -1.915835 -0.460676 0.119636 -0.879468 102 32 167
-6.918519 5.017962 6.013171 0.767187 -0.641385 -0.006954 184 216 152
-7.488845 -4.790043 3.013540 -0.620008 0.678390 -0.394180 253 188 139
-0.800848 2.708447 0.341643 -0.747774 0.563388 0.351324 128 15 49
1.601655 -8.487941 7.982232 0.032762 -0.663572 -0.747395 105 171 28
3.608201 9.630495 -8.760801 0.727946 -0.637787 0.251637 41 220 65
-8.382129 1.825173 -9.848935 -0.006668 -0.605277 0.795987 95 239 61
1.334299 7.305380 -5.522330 0.422982 0.717685 -0.553185 52 197 218
7.824991 -2.272440 -9.933702 -0.600952 0.420053 -0.680009 142 197 160
4.854178 -9.696763 -1.742699 -0.214307 -0.813620 0.540458 12 237 124
-7.091984 8.538339 -3.196746 0.895487 -0.420202 -0.146743 135 185 220
3.426570 9.332840 -6.447873 -0.251074 0.766929 0.590578 106 233 14
9.336586 -8.793399 -1.835198 0.237860 -0.145761 -0.960300 74 233 121
9.825618 5.063826 1.967249 -0.757644 0.384708 -0.527234 175 157 181
3.430419 -3.516789 -7.095508 -0.350327 0.837534 -0.419294 52 118 190
-6.060844 -4.224630 3.117306 -0.754583 -0.045351 -0.654635 187 27 96
-3.787310 -2.063739 -2.773502 0.623569 0.552898 0.552689 28 71 104
-1.346242 -0.707690 -8.958986 -0.355244 -0.828706 0.432491 36 185 82
1.872828 -1.404798 -4.052289 0.825864 -0.437679 -0.355507 149 145 118
5.398385 -2.695622 -3.234227 -0.964993 0.261441 0.020925 238 196 247
9.471677 9.184033 -5.391853 -0.171212 0.618964 -0.766531 129 240 126
-2.575065 7.432527 0.931506 0.882583 -0.343720 -0.320786 186 252 144
8.760386 0.897370 -6.562801 -0.036227 -0.813592 -0.580306 68 137 33
-3.331082 2.238408 5.998329 -0.658550 0.738797 0.143143 72 25 120
-2.934323 -1.707089 0.378601 0.196664 -0.697839 0.688726 64 189 144
1.449178 -5.875369 4.654709 0.336067 0.369790 -0.866207 2 141 92
0.929177 -1.406939 -6.450537 0.369126 -0.732789 0.571635 38 161 160
-5.784739 3.874782 -1.095610 0.013014 -0.583320 -0.812138 207 31 2
-5.426070 -9.052704 7.669334 -0.572426 0.369197 -0.732135 140 238 11
0.520430 7.643117 3.612533 -0.599120 -0.323149 0.732550 57 16 46
9.742437 3.810226 5.452795 -0.602830 -0.743171 -0.290332 129 68 29
-8.189297 4.776535 -7.654332 0.699708 -0.429417 -0.570973 12 158 17
2.415967 -3.846974 -0.327432 -0.395241 0.318561 0.861570 147 213 200
4.289182 5.301890 8.435958 -0.023405 -0.992890 -0.116711 65 77 152
2.354110 9.176243 1.505921 -0.089321 0.885825 0.455342 34 158 71
-0.272562 3.075010 9.098753 -0.087254 -0.229789 -0.969321 50 46 14
0.029443 5.668449 4.699294 -0.172178 0.963980 0.202725 244 120 48
5.502770 -8.263814 7.841296 -0.377572 0.754757 0.536452 4 131 58
9.696141 -8.931474 9.764448 0.900810 -0.278257 0.333338 76 209 199
3.144047 1.994349 -6.760678 -0.781978 0.232463 -0.578335 11 129 221
-9.599415 -2.610711 5.822364 0.244857 -0.313897 -0.917341 234 178 128
-8.782618 0.745723 -6.943051 0.631545 -0.722860 -0.280401 188 3 189
-8.320584 3.880561 -1.787673 0.461480 -0.787375 0.408751 69 205 173
9.408052 6.637609 9.360371 -0.710630 0.384293 -0.589341 242 11 227
4.272418 -0.139354 8.736259 -0.715225 -0.676666 0.174863 120 120 140
-1.769296 -1.889026 -5.722236 0.122771 0.712106 0.691254 176 97 47
5.540670 -2.815702 0.623722 0.392735 0.675165 0.624429 165 251 182
-2.334450 -6.102404 -7.337272 0.089287 0.261035 0.961191 203 15 64
8.573420 -2.428796 -2.482688 0.662335 -0.747638 0.048476 129 94 141
5.247760 -4.811781 -5.088030 -0.667528 0.653786 -0.356330 197 207 253
-2.773530 0.676335 -7.605867 -0.279707 0.198701 0.939299 156 191 25
7.185374 -1.812110 7.957797 0.614508 0.651314 -0.445163 204 90 135
-4.856239 2.480170 -6.612520 0.207695 0.545905 0.811696 53 85 114
8.476318 -2.114759 7.875336 0.169922 0.957429 0.233359 57 217 252
-6.391963 -2.687546 -6.316229 -0.792087 0.607366 -0.060872 103 2 61
0.406442 -9.099129 3.782962 -0.964253 -0.082897 0.251685 59 234 74
-9.467241 8.233328 -1.657858 -0.728736 0.526662 -0.437687 41 224 67
-6.610412 -9.684983 -7.891435 -0.783115 -0.067886 -0.618160 119 166 109
9.632610 7.776696 6.076269 -0.499150 -0.832065 0.241904 233 29 63
9.895938 -5.641669 6.981715 -0.042031 0.594657 -0.802880 208 195 255
-9.619692 6.106341 3.328185 0.152321 -0.732347 -0.663677 65 251 15
9.735668 -6.896296 3.785079 0.455645 -0.797202 -0.396052 230 71 94
-5.265015 6.464276 -0.972843 0.278889 -0.676864 0.681231 110 200 173
4.061590 -4.766307 -5.320622 0.820064 -0.561792 -0.109015 142 167 149
-7.916631 -5.421663 7.697444 0.856430 -0.465744 0.222735 200 246 7
-7.702048 1.782754 8.106654 0.696177 0.682998 -0.221021 125 22 174
-7.545286 1.970701 1.414515 0.886191 -0.297730 -0.354995 39 128 38
-3.594812 7.543954 5.610739 -0.487082 0.491762 -0.721749 39 97 98
-3.990271 -6.667331 -3.564445 0.256472 0.966534 0.005902 247 90 16
-0.167707 9.434636 -7.976412 0.250773 -0.679204 -0.689779 228 2 143
9.885452 3.487397 5.663250 0.758040 0.541161 -0.364035 64 209 151
-3.420159 9.229486 7.752641 -0.497639 0.765290 -0.408272 1 36 169
-4.442372 0.974113 -1.597952 0.764210 0.643975 -0.035769 110 155 159
-9.122714 -9.323737 -0.023954 0.024983 0.780818 0.624259 42 35 170
-7.954516 8.817798 7.912879 -0.818743 -0.200095 -0.538166 119 24 227
5.846364 1.978786 -6.792324 0.278871 0.126216 -0.951998 133 80 195
-5.717393 6.301422 0.896254 -0.895996 -0.348299 -0.275460 215 134 240
3.325868 6.104251 6.848301 -0.239465 -0.692309 0.680709 143 31 211
-6.303831 -1.692621 0.145816 -0.823287 0.511462 0.246180 251 83 237
-6.524167 7.758915 1.781215 0.592760 -0.007981 0.805340 134 118 65
3.325286 7.901381 -3.963835 -0.864033 -0.416828 -0.282314 214 157 223
-6.291368 4.565120 2.485091 -0.250830 -0.839503 0.481994 191 171 229
-8.006771 -4.708700 2.729306 -0.304273 -0.569760 0.763408 3 221 88
-0.656619 9.697440 -9.682523 0.096901 0.520438 0.848383 115 40 47
-3.079689 5.264498 0.552382 0.403593 -0.586694 0.702070 129 70 251
-1.927141 -8.630798 0.662751 0.804356 -0.427875 0.412230 231 102 177
3.551552 -0.877953 1.536393 0.125595 -0.392475 0.911147 40 188 214
-1.045588 -5.064812 -0.910562 -0.253783 0.964897 0.067580 166 176 136
8.796529 -1.704049 -7.889688 0.698928 -0.085752 0.710032 176 24 18
-5.968889 1.603183 -5.861694 -0.373923 0.677219 -0.633684 81 17 123
9.576965 -6.808620 2.252547 -0.543135 -0.595615 -0.591817 25 80 25
-3.846949 3.330574 -4.753569 -0.107882 0.402243 -0.909154 150 27 56
-0.861713 -4.063354 -4.562921 -0.490676 0.507949 0.707972 139 113 27
7.628152 -3.086247 5.185494 -0.991777 0.064674 -0.110437 115 21 211
9.738515 7.123678 5.977088 0.760969 0.296457 0.577096 235 118 18
-0.736944 8.205606 -1.624149 0.864089 -0.454330 0.216644 193 212 77
0.176842 -0.564341 -1.643189 0.765618 -0.598203 -0.236605 190 56 141
9.442711 4.694981 -3.841141 0.547895 -0.427593 0.719010 239 163 128
3.197531 9.602932 8.795507 0.360320 -0.851722 0.380446 102 228 238
7.206646 -3.085135 -6.492283 0.915343 0.401934 0.024405 183 222 106
3.050027 -4.137863 -8.382093 0.459870 0.681635 -0.569117 10 77 171
-3.384476 2.860836 -1.922366 0.405070 0.630733 0.661886 146 228 29
-7.465046 -7.427317 6.770379 -0.645343 0.305163 0.700291 89 30 233
-9.854900 0.829151 -0.399584 0.634760 0.367970 -0.679469 203 236 9
-1.712967 -9.948122 1.327842 0.772188 0.579755 0.260017 212 200 69
-6.351791 -8.781234 5.008681 -0.487337 0.336490 -0.805777 46 160 152
-2.082098 6.898907 6.166555 0.415326 0.159527 0.895576 153 190 144
3.802157 0.907948 -5.079805 -0.414477 -0.137300 0.899643 132 204 188
3.459111 3.668852 -3.413136 -0.344625 0.834911 0.429136 200 0 48
-2.097383 -5.785573 -5.673324 0.600141 -0.638286 0.482102 100 25 29
-0.199126 8.283416 1.062688 0.375852 -0.871657 -0.314562 82 67 179
-3.356280 -6.649926 2.237658 -0.412953 -0.448918 0.792428 158 77 228
6.578533 7.522032 -9.929816 0.740595 0.540540 0.399170 10 139 11
4.650850 -1.594095 7.633906 -0.476589 0.196402 -0.856907 244 158 49
-5.559163 2.844466 -4.677701 0.307415 0.900186 0.308483 134 158 239
1.036239 1.048593 8.454028 -0.988668 0.083417 -0.124806 141 107 72
-1.596581 2.373471 0.432741 0.664668 -0.460853 -0.588074 18 96 175
7.624232 -6.846659 2.957227 -0.250633 0.579746 0.775292 220 254 205
-4.539242 1.875511 2.721322 0.043534 -0.730048 0.682007 26 188 168
-9.212748 3.618408 -2.012403 -0.626493 -0.612742 -0.481719 88 187 29
1.708281 -7.302586 6.824071 -0.440598 -0.646409 0.622920 98 54 84
-4.427966 -3.041121 -7.359802 0.606748 0.706371 -0.364551 245 20 154
6.485325 -8.918108 -8.454219 -0.122214 0.675988 -0.726708 226 155 23
1.331738 -9.161054 2.196999 0.302308 0.572955 0.761795 148 213 223
-6.639857 0.022062 -5.904029 0.692424 -0.438749 0.572755 191 242 175
-7.937138 2.771568 2.407534 -0.418603 0.547884 -0.724289 173 237 220
9.135439 1.078883 6.731621 0.778403 -0.330266 -0.533866 197 110 68
7.261341 8.180661 3.799782 -0.781119 -0.306504 0.543974 125 116 80
-5.332225 1.280676 8.596535 0.743392 0.650632 0.155068 209 243 41
-8.873440 -2.284191 3.424170 -0.017042 -0.700021 -0.713919 143 91 92
-1.556413 2.843887 -8.281193 -0.848933 0.345173 -0.400210 203 61 166
-1.918866 -7.480607 4.957171 0.609708 0.566953 -0.553914 203 53 39
-7.953185 4.305145 6.640556 -0.932079 0.303947 -0.197092 106 57 57
-6.801181 -9.672921 -6.746226 -0.623714 -0.780762 0.037305 167 107 223
0.881681 7.357895 -7.806073 -0.557936 -0.808941 0.185262 210 101 70
-3.411106 -2.677272 -3.809495 -0.597128 0.061120 -0.799814 104 203 167
3.318384 -7.045304 -3.147790 -0.528155 -0.671455 0.519808 225 192 151
3.074423 6.541171 6.253785 0.051244 -0.402978 0.913774 73 168 183
-8.383916 1.728553 6.112218 -0.882541 0.168593 0.438973 85 187 202
-8.763327 -5.577618 -9.885111 -0.419153 0.271680 0.866315 212 193 202
-7.741627 2.181466 -1.709268 0.194595 -0.657025 -0.728320 173 111 232
9.463649 -6.665660 -4.297925 -0.425205 0.153347 -0.892012 253 82 81
-2.899462 7.290879 -4.234013 -0.957226 0.020344 -0.288625 214 60 108
1.798785 0.624486 -8.815864 0.438095 0.620271 -0.650643 16 211 59
6.928350 -2.864965 -6.227632 -0.304039 0.910554 -0.280092 134 90 36
8.251194 1.179233 -3.627737 0.393890 -0.902354 0.174950 27 132 28
2.784437 2.959385 -4.264566 0.416863 0.808751 -0.414906 181 185 145
3.678994 7.354019 0.500991 0.292210 -0.014265 0.956248 102 70 184
-4.050036 -3.213869 2.244357 0.766125 -0.633483 0.108404 93 72 51
-2.050765 3.394416 7.731025 -0.747615 0.560636 -0.356033 170 242 193
6.924225 6.667551 5.626477 -0.122225 -0.332161 -0.935270 178 36 65
-3.344031 -6.745278 4.808577 0.500102 -0.413525 -0.760852 58 113 253
-0.472270 5.100593 7.994262 0.845057 0.328783 -0.421640 51 188 244
-7.010335 -0.363221 -2.940969 -0.085660 0.650309 -0.754825 102 10 85
-2.220046 -1.961735 8.141185 0.415594 0.426513 0.803348 13 82 173
-5.778573 1.953250 -8.041573 -0.658860 0.636991 0.400182 234 78 33
-2.571381 -2.139189 1.434789 0.684816 -0.304754 0.661931 87 180 90
-8.263165 5.081263 2.113319 -0.943500 -0.016189 -0.330978 171 136 221
-4.763160 -1.698600 -9.225360 0.013603 -0.554299 0.832207 42 105 107
7.280231 9.372650 4.980968 0.398552 0.481912 0.780331 109 244 31
7.282194 6.383242 -7.764545 0.889154 -0.021908 0.457083 44 14 28
3.118882 7.581592 8.101762 0.945224 -0.026871 0.325313 125 164 30
-6.532224 2.715768 2.239192 0.558784 0.674863 -0.481996 69 131 206
-8.279302 2.721673 6.247806 -0.044379 0.502868 0.863223 156 92 185
-4.153315 8.637224 0.183577 -0.338457 -0.672813 -0.657852 223 117 157
0.943827 -6.634835 7.005499 -0.382275 0.580444 -0.718993 42 117 163
2.274422 6.564492 -1.067412 -0.684704 0.483406 0.545436 23 112 39
4.699400 -3.591923 -7.544866 -0.479408 -0.730685 -0.486074 44 44 109
6.995712 -5.198258 -1.000813 -0.426324 -0.239874 0.872186 63 132 140
0.994493 9.757689 8.633641 0.428182 -0.690874 -0.582540 150 209 202
1.611596 -8.165590 5.106274 -0.058394 0.462877 0.884497 34 109 171
-4.211968 3.667724 2.980033 0.883398 -0.337997 0.324601 147 224 97
-2.480696 0.806846 3.730052 -0.153255 0.244497 -0.957462 33 240 63
7.638674 7.661887 -7.333214 0.948922 -0.312082 0.046381 102 78 149
-0.270029 -7.088883 -1.986291 0.682079 -0.714085 -0.157643 248 240 186
2.913826 5.636978 6.600836 0.798809 -0.557994 0.224826 45 133 65
6.707222 -4.528850 8.550941 0.150354 0.851640 -0.502099 204 58 55
-3.714555 6.517693 0.308124 0.606948 0.654988 0.450116 45 116 224
4.998266 -4.366533 -6.820210 -0.552705 0.561231 -0.616066 195 222 251
8.113302 -5.080456 9.304318 -0.513513 -0.584884 -0.627865 144 137 3
-4.364841 6.440872 -5.670138 0.614134 0.304177 -0.728228 36 184 61
-7.310256 5.342973 -6.079703 0.882675 -0.207903 -0.421499 230 46 213
-8.449183 6.501513 9.884373 -0.911300 -0.069467 0.405840 139 234 47
-0.686725 0.366749 6.476732 -0.698692 0.606896 0.378822 43 61 128
1.502876 -3.500973 -5.055808 -0.091071 0.348281 -0.932956 126 190 31
-1.815622 -3.847096 4.328685 -0.626047 -0.716437 -0.307869 119 170 134
0.314849 4.010976 4.756894 -0.412337 -0.063636 0.908806 26 208 180
7.648234 -4.019038 -7.878037 0.890270 0.209880 -0.404190 8 34 65
4.324991 1.549850 5.294480 -0.168192 0.745250 -0.645224 60 139 153
-1.711910 -7.083254 3.548012 -0.360099 0.660020 0.659320 152 93 195
-1.773047 -1.240291 2.932327 0.900752 0.029910 0.433303 34 223 32
6.579289 3.196794 8.863697 -0.684571 -0.443975 0.578143 184 93 96
-7.785278 -8.155090 0.960498 0.596667 0.758144 -0.263069 24 61 19
-9.671481 -4.968275 7.179997 -0.458292 -0.829747 -0.318573 139 206 202
6.617946 7.454766 3.886584 0.670397 -0.730204 -0.131798 184 41 163
7.628155 6.373461 -0.470868 -0.499899 0.805731 0.317647 73 161 225
-4.391628 -3.343413 -4.634181 0.631860 0.581326 -0.512653 193 91 127
5.154464 -7.660317 -8.857639 0.158954 -0.925644 0.343390 116 86 69
0.427171 3.959025 -7.434939 -0.885458 -0.398612 -0.238898 189 4 54
7.256867 -9.552546 -7.031225 -0.504503 0.507548 -0.698478 221 113 83
-4.146341 -3.654980 2.291137 0.554041 -0.623210 -0.551949 67 203 142
9.079901 3.958297 -0.886396 -0.091667 -0.003992 -0.995782 157 143 186
-4.224142 1.062966 8.491191 0.170206 -0.869412 -0.463845 193 207 55
-4.084956 8.530407 -0.525475 -0.016949 0.238203 -0.971067 54 22 131
6.235261 -2.450203 6.829547 -0.574376 0.572894 -0.584709 110 168 223
2.556138 4.033545 -5.874350 -0.340712 0.596870 0.726403 46 99 239
-8.365696 9.548257 -1.866187 -0.784461 -0.086862 0.614066 96 162 70
5.576820 0.076205 8.782956 -0.352296 0.218666 -0.909985 25 42 221
8.432737 -8.979362 5.791888 -0.551601 0.440163 -0.708515 57 19 248
-7.844244 5.603765 -5.926496 0.142294 0.911620 -0.385618 239 133 8
3.778445 -0.853353 8.038861 0.495569 0.629643 0.598298 14 241 60
6.193588 2.417646 1.807292 -0.630568 -0.223748 -0.743183 167 62 175
7.297959 4.511027 -9.811709 -0.835601 -0.537575 -0.113067 250 122 197
-5.653252 1.622939 2.904482 0.549217 -0.780761 -0.297949 63 211 110
-3.413301 -8.520829 7.609768 -0.671933 -0.061256 -0.738075 147 209 209
-5.149911 9.782192 -4.898263 0.325107 0.459198 0.826706 153 155 236
-4.180870 4.316527 -1.730243 -0.613291 0.268476 -0.742829 28 75 102
5.979827 0.271242 1.880500 -0.428322 0.703169 -0.567534 157 47 188
-0.191294 -5.446771 -7.626272 -0.709061 0.685180 0.166615 65 27 221
4.892258 -3.976727 -6.426876 -0.780777 0.573045 -0.249011 56 33 49
9.578036 -7.073511 9.642618 0.220271 -0.232603 0.947299 105 57 137
-6.553817 -0.841400 5.980733 0.735899 -0.363648 0.571151 190 198 136
-1.557194 8.729399 4.789798 -0.442243 -0.843914 -0.303694 192 171 132
-0.523684 -7.481265 -0.436418 0.933575 0.192516 0.302283 215 74 112
-4.491762 -8.079191 8.857060 0.838533 0.155454 -0.522204 64 12 103
7.683430 3.883610 6.337112 0.197789 -0.965389 0.170013 77 51 182
6.923298 -9.321545 4.148940 -0.587464 -0.310731 0.747216 143 101 13
-6.287461 -4.306080 4.776147 -0.454201 -0.512842 0.728488 199 108 173
-3.970644 8.753267 -7.047628 0.518366 -0.511602 -0.685245 220 106 139
0.914625 -0.955483 8.997931 -0.279934 0.337281 -0.898821 242 105 95
-5.363105 -4.670800 -4.101719 0.353499 -0.901875 -0.248313 27 62 142
-3.015390 5.639951 0.479768 0.141808 -0.210872 0.967173 244 101 12
6.741611 9.148610 -2.062403 -0.413724 0.378773 0.827867 115 24 187
-4.631242 -6.564349 5.556983 0.929565 0.364490 0.055289 115 34 113
-4.299191 3.189097 8.569557 0.798961 -0.185960 -0.571909 135 3 119
8.748613 -1.237892 -2.403100 -0.331194 0.497079 0.802012 0 29 137
0.439233 9.670541 -2.990156 0.512839 0.612275 -0.601760 232 110 104
5.522686 -8.679852 1.920410 0.495581 -0.443180 -0.746988 73 78 52
-9.433689 7.563867 9.279198 -0.763291 -0.589812 -0.263644 33 47 209
3.601009 7.726245 9.794052 0.072515 0.094070 0.992921 72 243 142
2.799217 9.288894 2.201191 0.699927 0.021897 0.713879 172 142 223
-4.280021 9.568610 2.116591 -0.555335 0.708404 -0.435622 206 255 103
9.729501 0.446409 2.843207 0.151696 -0.879094 -0.451864 134 14 169
-5.781944 5.314694 -1.926917 -0.931538 0.040980 0.361327 82 163 103
-0.498848 8.267546 1.505385 0.720477 -0.668487 0.184492 124 99 183
2.977748 4.153101 -8.814981 0.744363 -0.357097 -0.564274 67 210 170
0.036637 9.423738 -8.438418 0.534029 0.666493 0.520192 22 48 231
-1.052921 -9.041907 -8.314614 -0.168025 0.923215 0.345603 91 118 145
7.832109 -5.111949 4.337678 -0.652479 -0.727931 -0.210681 181 252 172
-2.751653 0.941431 -5.612656 -0.531828 0.359835 0.766601 81 207 230
5.055306 -9.211847 -8.536170 0.532190 -0.722443 -0.441419 43 175 46
-8.516616 0.875706 -3.592708 0.504955 -0.368475 -0.780543 113 101 88
-8.556104 -5.999629 -1.446922 0.897967 0.418627 0.135673 48 131 113
4.155936 -2.215174 0.839533 0.820274 0.545674 0.171437 4 147 200
0.440801 -8.066433 -8.179242 -0.787623 0.614832 -0.040379 23 46 19
-0.755924 1.322542 -8.592217 -0.680066 -0.319320 0.659958 108 168 151
1.299283 4.681264 -1.332873 0.776230 -0.625522 -0.078675 167 76 70
7.988953 -7.433036 -7.800958 0.342204 -0.782380 -0.520363 138 99 40
-3.876309 -8.594702 0.396655 0.691054 0.720893 -0.052519 80 139 190
7.224916 -1.649821 8.912297 0.995006 -0.090803 0.041454 187 21 49
-4.078646 -6.643714 3.031063 0.443611 -0.766498 0.464425 198 21 219
-6.684002 5.357974 4.018576 -0.678815 -0.451311 0.579248 73 52 52
-0.656050 9.047181 -2.717744 -0.847661 -0.355138 0.394142 25 224 142
2.365257 -4.858953 7.846713 -0.416843 -0.750292 -0.513131 242 64 180
-1.178551 -0.318242 0.415128 0.734288 -0.611957 -0.293821 121 8 163
-9.925068 -4.467008 -7.332455 -0.962641 0.166851 -0.213266 96 127 11
2.666261 8.926557 -7.990506 0.521239 0.022690 0.853109 222 200 121
1.868087 -8.834352 1.615384 0.625092 -0.282042 0.727814 166 95 117
7.307143 -5.897956 0.942429 -0.528755 -0.632270 0.566263 129 182 228
0.416220 3.161395 -3.041170 -0.144946 0.741880 0.654679 36 182 235
-8.695017 6.858319 -3.266194 -0.976573 0.142602 -0.161153 132 79 230
9.534277 0.260604 -2.853276 -0.365257 -0.568843 -0.736889 174 74 85
-8.718931 8.603937 7.507555 0.467480 0.534763 -0.703911 253 68 139
4.771640 -9.089355 -8.507155 -0.437246 0.871753 0.221050 93 62 216
7.581740 -0.533069 3.271602 -0.487716 0.495122 -0.719018 154 70 186
9.888646 2.766644 -4.991165 -0.492582 0.759429 -0.425006 252 31 115
3.986323 -4.550195 6.448165 0.590629 0.797214 0.124930 52 5 161
3.672208 2.561242 -8.715914 0.565683 -0.511111 0.647123 114 151 13
9.236856 1.570941 8.310287 -0.573440 -0.801910 -0.167649 127 219 74
-1.861853 8.975382 6.926640 -0.710722 -0.668745 0.218298 68 135 184
3.059358 9.350778 4.207314 0.697751 -0.678741 0.229029 210 202 186
-0.905511 -6.196126 -8.374656 0.681269 -0.561411 -0.469777 29 191 219
-9.178745 -6.784022 -9.667401 -0.121104 -0.160071 0.979648 42 189 113
-3.155513 9.058036 6.353833 -0.479216 -0.868593 0.126089 84 117 94
-1.100244 1.055903 4.167054 0.114031 0.465945 -0.877435 176 23 243
4.787589 -3.191158 3.790472 -0.679699 0.172346 0.712956 103 165 200
-3.810729 2.756500 -6.684455 -0.202381 -0.644608 -0.737240 87 87 162
-8.682916 -7.923466 -9.356076 -0.287404 -0.184296 -0.939912 88 16 109
-2.148869 -9.316735 -4.335516 -0.103989 -0.473116 -0.874841 202 110 239
-3.664827 -4.281916 4.959384 0.613539 0.569584 0.546941 84 199 246
4.213025 -2.612349 -6.794396 -0.940281 0.124759 -0.316713 223 217 115
-7.742283 4.917967 3.140363 -0.855133 -0.198117 -0.479059 68 247 61
-6.939353 1.249694 9.258854 0.535485 0.504380 -0.677390 164 186 58
-2.404091 0.196517 -5.315921 0.283288 -0.714310 0.639929 170 195 177
-0.315841 -0.075860 7.759048 0.591874 0.805728 0.022102 64 39 30
-9.253095 9.012701 7.064621 0.255627 -0.838726 0.480826 122 218 14
4.349938 5.685497 3.705476 -0.688846 0.704459 0.170962 65 201 166
-7.635293 -7.736650 1.297723 -0.878372 -0.247250 0.409061 66 116 79
-7.849386 5.126926 8.145226 -0.349967 0.847914 0.398202 183 82 135
7.755102 1.987297 -1.382700 -0.319120 -0.621895 -0.715128 194 68 148
1.489027 -0.475857 -4.430666 -0.152499 0.570271 -0.807177 127 61 40
8.340973 -8.624592 2.326997 0.796015 0.064970 -0.601780 217 96 160
6.887650 -9.963334 -9.193889 -0.614727 0.620252 0.487235 65 86 160
-1.291195 -1.300465 1.047364 -0.822899 0.522705 0.222748 7 251 70
0.202568 8.646328 -2.762212 -0.767610 0.635582 0.082519 168 175 159
9.067704 -6.721694 -3.409629 -0.475293 -0.797811 -0.370937 49 177 153
-3.109706 2.964266 2.131938 -0.102024 0.945186 -0.310185 225 134 140
5.760304 -2.507479 0.602305 -0.558301 0.791363 -0.249090 76 62 3
-2.673480 6.045214 4.426364 -0.777715 0.551748 -0.301220 205 96 195
6.195085 -9.594396 -6.295993 -0.287519 0.929662 0.230350 171 21 127
8.853851 4.892091 -3.799958 0.580174 -0.726814 -0.367613 84 168 3
5.490609 8.221137 -1.565834 -0.204823 -0.724659 -0.657964 85 38 203
-8.225723 3.719772 1.072536 0.672297 0.733380 -0.100855 1 206 28
-1.261328 -3.780619 -5.519137 -0.525775 0.073448 -0.847447 214 39 37
-4.011695 7.096174 0.582716 0.395846 0.783362 0.479218 173 106 138
5.382773 9.506188 1.079740 -0.118916 0.755694 0.644039 152 140 189
-9.496479 -2.229730 4.096690 0.522702 0.607553 0.598048 66 56 97
-9.416134 -2.121461 2.540305 -0.450601 -0.714783 -0.534831 41 152 171
-0.549114 8.336571 -1.746327 -0.188756 -0.804956 0.562509 206 206 4
-6.383162 -3.320330 7.591811 0.240729 0.943235 0.228819 115 123 170
-7.366667 -0.778163 0.225092 -0.863958 -0.332029 0.378593 184 46 207
1.907321 1.950401 -2.128296 -0.135272 -0.987491 0.081014 173 189 87
-9.304973 -3.882770 0.483344 0.932715 -0.343039 -0.111208 20 21 199
5.815078 4.192966 4.325572 -0.211577 -0.967790 -0.136448 42 160 3
6.322178 -8.677061 -3.066487 0.726734 -0.621013 0.293598 81 184 143
2.284407 9.878622 1.006471 0.137666 -0.229818 0.963448 243 66 143
7.785131 6.613312 5.144139 -0.424677 -0.549006 -0.719890 174 211 168
-8.816984 7.711761 4.158963 -0.555329 0.468622 0.687025 98 133 110
5.239019 0.721517 -9.922844 0.670828 0.216496 0.709309 231 188 226
1.110795 -6.501764 1.238011 -0.739713 -0.655916 -0.150327 83 105 49
-0.481576 1.361431 0.712948 -0.504603 -0.246581 0.827390 25 85 23
0.188444 5.287219 -4.799210 -0.569271 -0.488496 0.661288 122 183 183
4.532262 -7.354776 9.063277 0.711173 -0.687788 -0.145536 204 211 143
-3.832756 2.130343 0.295248 -0.500963 0.796359 0.338894 156 76 101
8.960832 7.866398 1.448964 -0.361042 0.530697 -0.766817 158 23 204
-7.746273 8.679456 -0.520627 0.525679 -0.734709 -0.428793 223 72 212
-7.804012 7.141642 1.281901 -0.440283 0.445325 0.779639 239 143 249
-7.242593 -4.252018 9.317171 -0.433862 -0.666205 -0.606577 146 52 185
-1.889469 7.174764 -7.686969 0.443846 0.600726 0.664927 222 42 26
7.936224 2.562543 6.535456 -0.755479 0.467212 -0.459309 189 56 132
2.203754 8.439779 7.679174 -0.638007 -0.694336 -0.332934 37 166 187
-0.339512 9.513026 -1.948853 0.572230 0.328035 0.751629 153 189 134
4.575984 6.120557 -0.652108 -0.654406 0.585518 0.478457 223 205 201
-3.893498 2.488055 -0.316364 0.786199 -0.128902 -0.604381 212 96 213
-1.343727 6.788066 -8.466603 -0.535776 -0.795265 -0.283722 227 22 42
4.957141 -3.087417 2.200373 0.754541 -0.627787 0.191183 163 70 242
-9.338796 -6.279145 5.734022 0.731596 -0.553272 -0.398318 157 88 60
1.788862 -9.317798 -1.081435 0.699688 -0.705272 -0.114145 237 185 201
-8.654552 4.152781 2.684823 0.503492 0.525152 -0.686084 131 122 126
-2.773725 -2.603550 1.449157 -0.973247 -0.168485 0.156215 57 88 5
-5.468440 9.582614 5.789969 0.409242 -0.719047 0.561687 195 174 15
-1.596062 -4.205894 1.237872 -0.153532 -0.852709 0.499314 74 63 161
7.511749 3.734004 -6.988295 -0.411434 -0.309121 -0.857418 48 23 97
0.218702 -7.705143 -1.073794 0.043016 -0.615358 0.787073 243 104 251
9.085299 9.628458 -7.572629 -0.527191 0.588117 0.613341 33 230 176
-8.927882 9.873983 9.911972 0.099388 -0.010604 -0.994992 193 8 165
-4.372872 2.848768 -2.721400 -0.485375 0.838666 -0.247084 151 10 248
-4.558057 -4.207929 -7.792485 0.018459 0.917592 0.397094 36 128 192
-0.724325 -8.267172 8.519891 -0.207231 -0.745356 -0.633640 229 108 217
-6.072570 6.604249 6.860589 0.712913 0.613201 0.340206 102 59 109
-6.403829 -5.443791 -8.878945 -0.765501 0.374107 -0.523499 248 133 114
8.525506 4.853315 6.008973 -0.657833 0.027019 0.752679 73 211 177
-6.851421 5.487546 6.309751 0.013414 0.876420 -0.481360 2 38 199
1.079501 -6.380062 -6.896874 0.417423 0.775075 0.474359 19 167 13
-7.915658 -2.363944 3.615941 -0.057673 0.996822 -0.054948 64 198 236
-5.031717 -7.048906 -6.504486 0.081900 0.027717 -0.996255 122 76 53
8.276724 -8.775678 3.103106 0.317010 0.634964 0.704504 59 246 227
4.197526 9.395350 -1.102632 -0.485635 0.317030 0.814648 108 254 38
9.537057 7.026490 5.180221 0.832997 0.508180 -0.218790 27 121 16
-7.119351 -6.616627 -1.966379 0.183381 0.749797 0.635749 9 179 204
-3.958921 -5.396296 1.345912 -0.583326 0.712709 0.389586 201 212 214
-2.026461 -8.036544 -7.706345 0.504290 -0.858210 0.095747 5 207 191
6.762671 6.873163 -2.198616 0.490114 0.047786 0.870347 205 134 168
0.249672 -5.804696 -6.323296 -0.649769 0.756470 0.074520 250 15 211
-8.013553 1.806898 -2.406466 0.866150 -0.275913 0.416721 237 146 255
6.638121 -6.114089 -9.219000 0.903544 -0.407721 0.131799 61 247 155
5.225097 3.303460 8.176809 0.814013 0.283517 0.506952 68 152 7
-0.540673 -9.162715 -1.551688 -0.055406 -0.941952 0.331144 45 245 25
-2.307556 -5.156589 7.530210 0.458776 0.883496 -0.094648 66 142 122
2.534895 9.860960 3.906261 0.565332 0.515963 0.643570 238 183 32
-2.324422 3.486039 6.293268 -0.398794 -0.323968 0.857909 57 186 118
-4.244684 1.801548 -8.271989 -0.142599 -0.802550 0.579292 229 24 93
-3.965715 2.602513 9.503633 -0.317764 0.288903 -0.903084 197 1 23
9.091203 -4.167042 2.615320 -0.370805 -0.920871 0.120420 40 246 44
2.897071 1.225719 -1.744717 0.591555 -0.644916 0.483885 60 132 170
2.305209 4.847873 -5.443061 0.710055 -0.468298 0.525851 203 255 238
7.148006 -4.257390 7.015767 -0.638928 0.197644 0.743444 227 58 41
2.964936 -6.163318 -2.596852 -0.731131 0.120865 0.671446 221 45 35
4.365742 -0.377176 5.092979 0.781006 0.385112 -0.491649 193 98 138
0.953195 2.082176 -1.539143 -0.714144 0.601800 -0.357540 84 72 180
3.257140 -6.880228 -7.260412 -0.252257 0.027958 0.967256 155 157 218
-6.460376 -8.888147 2.393557 -0.407125 0.332488 0.850706 42 25 46
6.183516 4.410429 -5.642828 0.358212 -0.767443 0.531711 177 122 25
5.210569 -2.759425 2.262561 -0.752083 -0.348422 -0.559440 240 146 98
0.977134 0.459171 2.797605 -0.390915 0.383276 0.836830 29 115 254
-3.857297 -7.166698 -9.382956 0.661471 0.074649 0.746247 154 80 229
-5.845446 9.151058 -5.827172 0.736692 0.167437 -0.655172 77 33 197
7.277423 6.560039 -4.676911 0.173494 0.357121 0.917804 21 126 81
-1.769846 7.827376 1.783539 -0.216360 -0.130423 -0.967563 217 107 216
-4.118806 -1.749255 -4.705126 0.733666 0.143264 -0.664236 88 247 146
-2.611377 8.049799 9.931593 -0.053653 -0.798676 0.599365 71 188 176
9.697019 -3.311254 9.821914 -0.340920 0.923959 0.173415 113 64 208
-8.716322 -4.628498 -1.477082 -0.684775 -0.081752 -0.724155 239 165 35
8.672065 4.488621 -2.649854 -0.683578 0.683178 0.256883 187 153 160
1.857013 -2.278685 5.354018 -0.568816 -0.812060 0.130410 230 128 156
6.628668 4.282201 -9.918507 -0.342567 -0.749931 0.565908 174 173 134
7.305451 1.388985 0.994836 0.521068 -0.798973 -0.300219 77 86 125
2.971851 0.102092 1.259554 -0.771249 0.200112 0.604260 157 220 237
3.440058 -1.826675 -9.237111 -0.360781 -0.601662 -0.712629 175 208 50
-6.912093 -3.458380 3.468892 0.564695 0.644838 -0.515077 139 200 11
-4.875425 -5.754399 8.309075 0.816268 -0.364077 0.448502 205 151 45
-9.526016 -9.247881 -1.797339 0.446537 -0.411821 -0.794360 164 34 34
-2.882367 7.437240 3.144969 -0.057419 -0.216447 -0.974604 8 135 144
-6.924973 -2.556295 -6.834256 0.792258 0.556759 -0.249694 150 218 131
7.507673 9.447492 9.622572 0.799585 -0.582168 0.147456 161 196 144
4.309486 -2.317840 -3.025161 0.493861 0.151258 -0.856284 246 252 121
2.878784 -1.167647 8.647151 -0.748877 -0.495530 -0.440037 212 15 26
6.745544 3.818244 -2.849658 0.793359 0.591461 -0.144068 6 190 152
-5.635132 -0.514421 8.766853 -0.948502 -0.221493 0.226460 183 95 125
5.632585 -3.781631 0.922544 -0.629870 0.720258 -0.290676 252 51 33
-9.398145 -0.718909 -1.423429 -0.806858 -0.242570 -0.538647 204 163 49
0.633500 2.488693 -5.160637 0.641303 -0.753907 -0.142671 106 81 250
-7.811402 -1.828547 -2.288148 0.314104 0.571463 -0.758135 191 145 0
-7.026014 -7.591235 0.435166 -0.570344 -0.082721 0.817230 171 158 154
-5.516386 -1.400574 0.992524 -0.418929 0.895753 -0.148747 210 192 94
-3.895305 -3.612386 4.308012 0.907767 0.116852 -0.402871 11 199 167
-0.072028 4.229828 1.628725 0.474548 0.464516 0.747683 27 104 135
9.304056 9.766409 3.352207 -0.633040 0.202564 -0.747146 18 179 2
-0.567089 5.665912 2.295286 -0.575255 0.516272 0.634465 210 174 175
-5.298410 -3.642260 -1.445212 0.466120 -0.730320 0.499364 19 52 103
-0.562978 3.891971 -8.873139 -0.347844 0.717965 0.602935 13 61 139
3.260762 -3.652918 -4.729707 -0.436567 -0.638632 0.633687 170 137 227
-1.786978 -1.537937 7.073448 0.671487 -0.628807 0.392055 1 85 183
-6.817985 -7.034372 -9.206910 -0.697938 -0.282906 0.657911 133 251 122
-5.491569 -2.362582 4.669223 -0.615895 -0.471589 0.631092 254 30 148
-6.132103 7.619864 8.122620 -0.700437 0.588595 0.403663 87 132 221
2.113115 9.620383 -7.113567 -0.732613 -0.372129 -0.569910 181 247 71
-8.234941 -9.892027 -2.968877 0.877126 -0.470191 0.097829 65 160 44
4.443503 8.189095 -1.890341 -0.541178 0.051114 -0.839353 120 72 125
3.671145 7.348063 0.444791 -0.497381 -0.799768 -0.336129 196 47 119
8.286803 -8.837980 2.650070 0.241481 -0.629793 0.738273 75 109 52
2.208155 3.348661 0.858378 0.524048 -0.349213 0.776804 51 202 139
1.866890 -5.411191 9.811000 0.721200 -0.610225 0.327866 178 56 151
-4.568349 7.328154 5.082570 0.783343 -0.535576 0.315487 201 67 161
8.824214 -7.705832 0.163736 -0.339358 -0.832736 -0.437479 177 128 53
-7.377364 -5.190827 5.489398 -0.622471 0.326083 -0.711477 25 27 68
-1.514701 5.521502 -8.428647 0.258799 0.306518 0.916008 171 15 177
-1.001181 -7.713207 -1.965629 0.728718 0.672743 -0.128008 162 179 188
-0.683392 0.674161 3.585685 0.262526 -0.660061 -0.703846 94 158 93
6.611361 -2.838002 9.968850 0.740513 0.652489 -0.160932 158 187 56
3.270789 -8.143279 -9.715410 -0.877680 -0.433290 0.204787 109 91 60
-8.110559 -5.329964 9.224174 -0.618552 -0.783754 -0.055891 248 255 172
3.531833 -5.174384 0.978382 0.677656 -0.662694 0.318777 10 162 172
2.455304 4.068613 -2.779612 -0.428169 0.702160 0.568896 13 128 166
-5.931014 8.179347 8.851372 0.181053 -0.737308 0.650843 6 112 70
-2.619242 7.408656 -3.928961 0.251897 -0.949717 0.185974 17 22 167
3.185081 5.389605 -1.747248 -0.525592 -0.534285 -0.662037 218 236 190
-0.013717 6.342523 1.740593 0.124793 0.759553 -0.638361 19 31 203
7.223143 -6.907115 -0.102579 0.479950 -0.598632 0.641318 101 153 96
-4.378958 -2.443833 7.820910 -0.162235 -0.056790 -0.985117 226 233 239
-9.204988 -2.953539 -2.077021 -0.418177 -0.464357 0.780705 254 246 228
3.288666 9.391221 0.701834 -0.450666 -0.195898 0.870933 145 216 253
-8.635010 -0.105077 -8.142443 -0.697719 -0.716337 -0.007083 25 54 182
0.927753 8.380677 -8.269257 0.666069 -0.731070 0.147949 60 58 66
9.734426 -4.311194 9.718533 0.012280 -0.998762 0.048200 55 138 227
-8.600311 5.775834 0.567995 -0.485535 -0.513295 -0.707661 76 125 233
1.361097 8.979746 9.475601 -0.646032 -0.321632 -0.692240 251 189 34
-9.051446 5.751726 4.117624 -0.857495 0.496382 0.135304 142 191 180
1.916118 4.503748 -4.368518 -0.066808 -0.969504 0.235792 128 116 95
-6.107509 1.106157 -2.776972 0.168034 -0.899363 0.403623 181 107 199
2.179770 8.850157 1.724480 0.600017 0.560537 -0.570770 210 45 148
5.020913 -1.992669 1.541243 0.635749 0.686967 0.351993 157 9 69
5.535714 3.838026 -1.581680 0.676332 -0.301878 0.671897 147 40 44
2.704042 -3.515939 5.087007 0.395950 -0.104541 -0.912302 222 96 209
-4.346579 -0.785419 -0.585135 -0.740759 0.079636 -0.667034 253 189 75
-9.219852 7.757978 -6.227636 0.783979 -0.372424 0.496667 163 190 54
-8.017345 -7.417231 9.636325 0.585541 0.745128 0.319257 173 88 53
3.887048 -7.351621 9.161072 -0.536776 -0.192464 -0.821479 148 53 71
5.264735 4.598114 8.407668 0.723475 0.053404 0.688282 235 138 216
6.952881 7.503600 9.724407 0.251355 0.959933 -0.123890 221 218 38
-3.058025 6.424016 5.130522 -0.332084 0.707750 -0.623547 42 141 214
-7.126338 3.287604 -7.993076 0.123462 -0.992311 -0.008689 69 65 125
0.427604 7.860409 9.757148 0.714040 0.585078 -0.384487 127 78 162
7.384696 -8.594665 8.335028 0.212944 0.889649 0.403956 15 44 245
-2.263049 5.902693 2.604149 -0.178693 -0.715446 0.675430 78 218 135
-0.206621 7.383004 -6.555870 0.594545 -0.251456 0.763732 237 55 231
2.525827 4.651991 6.251843 -0.204026 -0.927430 -0.313443 116 253 250
-0.947058 9.754203 8.866530 -0.600148 0.618590 -0.507119 194 30 74
3.282527 -3.897048 4.979450 -0.432220 -0.781003 0.450799 230 253 214
-4.399802 -8.245018 7.451387 -0.819883 0.359952 -0.445227 236 228 80
-6.654211 8.913596 -3.337654 -0.387071 -0.523850 -0.758786 189 15 238
-1.236579 6.802787 -0.278114 0.968744 -0.083980 0.233415 109 28 205
9.336260 5.757830 -4.511553 0.533680 0.475742 -0.699182 23 84 7
4.177951 9.370034 3.314876 -0.728899 0.684593 -0.006217 111 22 12
-7.410768 -3.900833 -9.715644 -0.424375 -0.861584 0.278530 48 160 71
2.745707 6.674850 6.778625 -0.182390 0.636226 -0.749633 227 190 194
-0.935315 -7.966864 -7.884094 0.267108 -0.441572 0.856544 129 65 50
8.106214 0.624678 -7.519664 -0.837263 0.543067 -0.063791 51 62 115
5.992932 -0.933243 8.555107 0.981587 -0.051107 -0.184051 136 231 158
-6.766105 4.509472 -7.725019 -0.538439 -0.719363 -0.438862 241 216 117
-8.717911 -9.541051 -8.423429 -0.408547 0.872536 0.267901 55 185 234
8.058772 2.190032 -2.808923 0.063448 -0.072925 0.995317 154 50 90
-6.240640 1.866650 -0.920344 -0.642843 -0.688717 0.335294 78 176 183
-0.206597 0.693838 4.353885 0.614554 0.717299 0.328337 153 145 204
-3.324818 -4.521155 -7.191535 -0.064121 0.365197 0.928719 131 102 235
-5.226764 -6.029728 2.525647 -0.588342 0.646730 0.485381 124 20 92
6.064998 -7.245592 1.617857 -0.235064 -0.705924 0.668144 246 230 98
-1.421535 -1.930198 -8.490025 0.073059 -0.175321 -0.981797 133 163 6
-7.889689 -3.566858 1.963294 -0.623859 -0.475766 -0.620037 124 240 220
7.072937 -0.086032 6.003143 0.277281 0.898681 0.339834 186 0 11
-7.636833 1.294971 7.367443 0.264181 0.964209 0.022556 120 245 16
-3.330119 -5.477648 -1.117750 -0.394741 -0.445325 0.803657 254 2 250
-0.817433 9.244695 7.421825 -0.945401 -0.172073 -0.276781 227 111 40
-1.774186 8.472440 1.343052 0.848218 0.409569 0.335826 28 230 179
-0.310758 0.401201 2.450274 0.554541 0.351794 -0.754139 130 117 61
5.676574 2.376712 7.629956 0.461688 -0.206503 -0.862671 119 24 99
5.207253 9.086986 -4.739352 -0.444833 0.754548 0.482475 139 114 145
7.569715 -8.399031 9.285325 0.809087 -0.325307 0.489442 168 244 12
1.146157 -9.784150 -4.400400 0.755310 -0.511518 -0.409702 62 78 78
-7.241667 5.475956 -7.248307 -0.542462 -0.114605 -0.832226 62 252 38
-7.387652 -0.873267 3.740016 -0.823162 -0.238135 0.515458 55 48 88
-2.632045 6.697083 9.393702 0.891759 0.409297 -0.192981 189 69 87
-3.221707 -0.116321 -4.684810 -0.892436 -0.013550 -0.450970 211 74 137
1.711431 -4.243292 -3.639061 -0.434460 0.218228 -0.873854 166 56 184
-1.370746 5.401858 -3.433692 -0.520259 -0.027598 -0.853563 84 176 77
-9.171847 -9.776908 9.709733 0.090430 -0.795673 0.598938 9 79 59
4.593942 6.211732 5.759842 0.417909 -0.651034 0.633646 42 187 189
9.155521 -2.430014 -4.904996 -0.465571 -0.308496 0.829502 17 99 120
9.917421 7.091250 3.480672 0.254456 -0.495213 0.830673 137 200 137
-4.914786 6.528299 -4.885838 0.621906 -0.602643 0.500054 82 18 18
2.078384 -9.696079 3.918468 -0.782716 -0.244917 -0.572163 6 12 85
-8.401220 4.770107 -6.059541 -0.950897 0.303428 -0.061050 94 54 98
-7.493189 -4.799669 0.610279 -0.165720 -0.165274 0.972225 107 244 136
8.730520 -0.965968 -4.622747 0.757650 -0.636620 0.143811 10 253 171
4.688829 -7.792702 5.551997 -0.450923 -0.235300 -0.860989 148 130 151
-8.849725 0.898288 3.342333 -0.656570 -0.583158 -0.478376 157 39 203
-2.834698 4.648218 -1.999556 0.955049 0.205041 0.214102 175 6 49
1.558502 -6.537767 -5.090120 0.071920 0.984471 -0.160138 56 182 103
-2.197586 4.145425 6.886372 -0.167900 -0.917074 -0.361641 46 246 201
-6.645775 -2.901255 -8.203925 0.447766 0.037889 -0.893348 20 152 65
-0.621118 -3.106853 0.147458 0.507592 0.795251 0.331550 33 184 54
0.860964 4.306784 -3.032441 -0.434720 0.622504 -0.650774 101 228 139
-0.787091 -0.126910 9.445047 0.730560 0.057886 0.680391 196 116 204
-3.545139 7.924788 4.776488 -0.131060 -0.862098 -0.489501 167 28 28
-0.523606 -4.508665 -2.778267 0.636120 0.521479 0.568693 70 238 149
7.404339 -9.415886 -7.222775 0.708088 0.189230 -0.680296 52 202 192
5.787561 -2.482003 -8.722018 0.325543 -0.064641 0.943315 189 238 156
-8.436788 9.522966 5.339932 -0.930780 0.036345 -0.363768 179 241 11
9.974424 -6.060949 8.544257 0.060256 -0.655610 -0.752691 85 202 139
-8.849107 -7.940796 -5.824801 -0.963887 0.005540 0.266253 32 246 14
1.295956 4.585737 -4.498559 -0.631109 -0.561138 -0.535561 65 20 61
-8.317611 -2.259647 5.688481 -0.425005 0.543158 -0.724120 29 71 118
8.763514 6.781835 6.017294 -0.176349 -0.958169 0.225416 227 52 211
3.202545 -8.708867 7.499721 0.498892 -0.097058 0.861212 240 203 179
-7.133136 -6.371582 -3.909178 0.257756 -0.033675 -0.965623 44 226 96
7.321399 -2.527276 -1.031623 -0.776504 -0.082006 -0.624754 171 62 96
0.283666 -0.706056 -0.042126 -0.957496 -0.149542 0.246655 73 2 15
-5.577239 0.567118 -8.100016 0.006188 -0.676453 0.736460 240 1 92
9.018095 -8.321790 -9.780849 0.282462 0.509868 0.812558 231 119 119
-6.587293 0.935429 4.130626 0.478451 0.299057 0.825621 30 230 244
4.045816 -3.985806 -6.313225 0.473871 -0.380374 -0.794205 164 48 49
-4.158729 9.126673 -6.999144 0.749435 -0.652946 -0.109585 87 149 60
5.570542 -9.345965 -0.532078 -0.675912 -0.700999 -0.227471 15 235 27
-8.685174 -6.701719 -7.829840 -0.736303 -0.636215 0.230410 57 225 60
6.415390 6.857378 -9.957304 -0.968118 -0.195639 0.156438 145 239 99
9.465666 6.764994 0.044850 0.732793 -0.678213 -0.055152 243 248 64
5.629428 -2.758842 -4.294219 -0.381505 -0.652255 0.654995 238 218 186
9.730805 1.458408 -4.944731 -0.849786 -0.495887 -0.178775 250 82 68
-2.898479 7.600223 -9.596030 -0.683883 -0.141332 0.715772 88 152 108
-9.970916 7.584455 9.934083 -0.527512 0.452343 0.719108 15 147 153
2.469578 -9.628002 -5.246110 0.141020 0.500275 -0.854306 243 255 75
-7.196355 7.278823 0.962596 -0.817430 0.033963 -0.575026 19 90 181
